ply
format ascii 1.0
comment PCL generated
obj_info is_cyberware_data 0
obj_info is_mesh 0
obj_info is_warped 0
obj_info is_interlaced 0
obj_info num_cols 60790
obj_info num_rows 1
obj_info echo_rgb_offset_x 0
obj_info echo_rgb_offset_y 0
obj_info echo_rgb_offset_z 0
obj_info echo_rgb_frontfocus 0.0
obj_info echo_rgb_backfocus 0.0
obj_info echo_rgb_pixelsize 0.0
obj_info echo_rgb_centerpixel 0
obj_info echo_frames 1
obj_info echo_lgincr 0.0
element vertex 1793
property float x
property float y
property float z
end_header
0.868598 -0.326014 2.24379
0.874751 -0.325642 2.24408
0.883802 -0.325691 2.24139
0.895537 -0.326993 2.24461
0.905723 -0.323308 2.24567
0.915812 -0.323376 2.24502
0.925365 -0.325245 2.24705
0.930113 -0.322918 2.24361
0.167567 -0.311646 2.24288
0.175194 -0.310978 2.24235
0.184803 -0.311051 2.24077
0.190592 -0.312628 2.2407
0.207534 -0.310107 2.24782
0.236359 -0.312033 2.24864
0.245103 -0.312559 2.24594
0.256675 -0.317445 2.24546
0.265315 -0.313118 2.24666
0.273991 -0.312262 2.24719
0.284606 -0.316436 2.24582
0.303012 -0.315581 2.24477
0.314545 -0.318729 2.24463
0.329329 -0.311442 2.24368
0.340961 -0.310007 2.24741
0.352771 -0.310478 2.24183
0.738531 -0.315122 2.24699
0.743668 -0.319111 2.24644
0.761638 -0.319565 2.24401
0.815999 -0.319353 2.24004
0.826428 -0.318003 2.2427
0.834341 -0.318593 2.24389
0.913121 -0.318966 2.24978
0.94024 -0.310049 2.24635
0.954784 -0.312263 2.24039
0.963818 -0.312678 2.24064
0.127042 -0.303938 2.24565
0.135753 -0.306306 2.24555
0.147015 -0.30164 2.24399
0.155738 -0.302164 2.24129
0.161571 -0.306086 2.24373
0.178759 -0.308184 2.24699
0.184478 -0.307773 2.24731
0.194139 -0.308511 2.2456
0.203709 -0.306268 2.24446
0.216099 -0.303928 2.24643
0.232526 -0.305883 2.24573
0.242093 -0.309642 2.24935
0.335274 -0.307584 2.24466
0.345026 -0.307954 2.244
0.355874 -0.304216 2.24615
0.364805 -0.302774 2.2438
0.717574 -0.300245 2.24596
0.725536 -0.305511 2.24528
0.733679 -0.309803 2.24478
0.947388 -0.306801 2.24721
0.956751 -0.306257 2.24766
0.965194 -0.308596 2.24754
0.973656 -0.307631 2.24395
0.986074 -0.301026 2.24357
0.106516 -0.296413 2.24627
0.11519 -0.297786 2.24637
0.120753 -0.294028 2.24438
0.155414 -0.299878 2.24765
0.224708 -0.297255 2.24511
0.373838 -0.298236 2.24503
0.38602 -0.292164 2.24367
0.394925 -0.291577 2.24414
0.403677 -0.293701 2.24409
0.707476 -0.290551 2.24128
0.714882 -0.29386 2.24298
0.993649 -0.296828 2.24461
1.00092 -0.293591 2.24546
0.0367161 -0.28106 2.24338
0.0455747 -0.283938 2.24319
0.0538398 -0.282164 2.24686
0.0742562 -0.284006 2.24141
0.0855977 -0.284028 2.24485
0.0945566 -0.288403 2.24438
0.389116 -0.288382 2.24754
0.415195 -0.284251 2.24534
0.425292 -0.282383 2.24408
0.697295 -0.280595 2.24273
0.705778 -0.283806 2.24551
1.00887 -0.288438 2.24668
1.01712 -0.282443 2.24498
-0.00417912 -0.271603 2.24052
0.00747549 -0.27463 2.24339
0.0101535 -0.274272 2.24656
0.0271944 -0.271313 2.2419
0.0334767 -0.278616 2.24669
0.053453 -0.275954 2.2421
0.0641665 -0.278931 2.24396
0.0772866 -0.276868 2.2469
0.0908415 -0.279473 2.24895
0.434847 -0.274426 2.24596
0.445985 -0.272991 2.24464
0.455738 -0.276167 2.24342
0.462074 -0.272345 2.24438
0.692451 -0.274154 2.24373
0.704064 -0.277063 2.24977
1.02607 -0.27453 2.24362
-0.0136877 -0.2642 2.24157
-0.00497843 -0.267292 2.2473
0.015069 -0.266484 2.24531
0.0223889 -0.264044 2.2471
0.0669153 -0.269126 2.24998
0.468749 -0.265087 2.24601
0.474864 -0.264837 2.24324
0.48422 -0.261815 2.24416
0.685024 -0.264971 2.24513
1.03615 -0.263633 2.24593
1.04323 -0.261368 2.24659
-0.245255 -0.253086 2.24586
-0.233309 -0.256276 2.24572
-0.209284 -0.250787 2.24784
-0.191642 -0.252843 2.24223
-0.184223 -0.253415 2.2464
-0.1756 -0.258339 2.2438
-0.168814 -0.255019 2.24574
-0.135599 -0.250595 2.24505
-0.106888 -0.250798 2.24025
-0.0205599 -0.256437 2.24579
-0.0150301 -0.255874 2.24912
0.493609 -0.258796 2.24509
0.500127 -0.254495 2.24615
0.51884 -0.250435 2.24763
0.524871 -0.251044 2.24775
0.533922 -0.252327 2.24478
0.543392 -0.250181 2.24246
0.678361 -0.251521 2.24425
0.684144 -0.253713 2.24097
1.05224 -0.253572 2.24204
-0.28582 -0.24289 2.24223
-0.275251 -0.244244 2.2434
-0.264425 -0.242616 2.24417
-0.255358 -0.245267 2.24402
-0.249158 -0.24702 2.24097
-0.223757 -0.248219 2.24477
-0.215517 -0.24732 2.2453
-0.20607 -0.247331 2.2447
-0.197166 -0.245502 2.24743
-0.162483 -0.243415 2.24533
-0.144936 -0.246182 2.24552
-0.131112 -0.244116 2.24652
-0.120233 -0.241256 2.24754
-0.113549 -0.246027 2.24389
-0.104513 -0.243596 2.24575
-0.0940886 -0.242186 2.24246
-0.0829446 -0.240342 2.24329
-0.0656229 -0.241105 2.24387
-0.0541101 -0.241281 2.24432
-0.033967 -0.241339 2.24516
-0.027307 -0.247959 2.24415
0.507029 -0.247379 2.24465
0.515269 -0.246599 2.24409
0.525283 -0.248352 2.2421
0.543329 -0.249932 2.24868
0.550678 -0.240995 2.24442
0.66722 -0.245058 2.2419
0.673645 -0.243603 2.24552
1.0541 -0.248565 2.24927
1.06047 -0.248329 2.2464
-0.315043 -0.232161 2.24711
-0.306639 -0.232022 2.24749
-0.295725 -0.233875 2.24559
-0.154601 -0.239393 2.24346
-0.126405 -0.23865 2.24779
-0.0953395 -0.236349 2.24957
-0.0808388 -0.237322 2.24999
-0.0745231 -0.239213 2.24387
-0.0429424 -0.238944 2.24525
0.557379 -0.236711 2.24547
0.563715 -0.235366 2.24596
0.572394 -0.232431 2.24268
0.589213 -0.230238 2.24164
0.620166 -0.230385 2.24278
0.65373 -0.233772 2.24343
0.662363 -0.237621 2.24306
-0.321829 -0.227152 2.24485
-0.313991 -0.224117 2.24278
-0.305428 -0.224487 2.24307
0.576963 -0.228767 2.24768
0.583436 -0.227057 2.24512
0.593455 -0.222114 2.24639
0.609151 -0.221333 2.244
0.614365 -0.227814 2.24303
0.6269 -0.227095 2.24363
0.633976 -0.221854 2.24485
0.642923 -0.224246 2.24475
1.07548 -0.224246 2.24485
-0.329821 -0.218421 2.24625
0.603904 -0.214849 2.24497
1.08368 -0.219223 2.24284
1.0989 -0.212809 2.2445
1.35827 -0.213451 2.24413
-0.36419 -0.206162 2.24425
-0.353216 -0.204796 2.24497
-0.345568 -0.201608 2.24592
-0.338603 -0.206274 2.24528
1.09376 -0.20931 2.24491
1.10726 -0.207691 2.24568
1.11538 -0.203153 2.24355
1.147 -0.204957 2.24117
1.35616 -0.204292 2.2456
1.36766 -0.207544 2.24224
-0.376328 -0.193544 2.24624
1.12398 -0.197561 2.24481
1.13492 -0.194442 2.24575
1.14558 -0.197716 2.24664
1.15634 -0.197844 2.24593
1.16326 -0.196659 2.24316
1.174 -0.197009 2.24563
1.18397 -0.193778 2.24439
1.31649 -0.190452 2.24324
1.35432 -0.194269 2.24397
1.38283 -0.190187 2.24568
-0.385287 -0.181006 2.24227
1.19258 -0.188683 2.24557
1.20241 -0.18073 2.24727
1.21282 -0.186955 2.24011
1.22427 -0.183285 2.24438
1.23535 -0.18028 2.24203
1.30618 -0.18434 2.24714
1.31053 -0.189251 2.24648
1.32591 -0.184443 2.24459
1.33402 -0.181285 2.24541
1.34578 -0.18446 2.2453
1.35302 -0.183202 2.24577
1.21365 -0.177392 2.24824
1.23596 -0.179145 2.24875
1.24422 -0.175109 2.24647
1.25568 -0.171394 2.24424
1.2859 -0.170467 2.24548
1.29414 -0.17428 2.24514
1.30235 -0.17809 2.2448
1.34248 -0.177267 2.24311
1.39845 -0.171977 2.24601
1.40591 -0.170644 2.24978
1.41313 -0.173824 2.24514
1.26769 -0.166642 2.24547
1.27405 -0.167283 2.24559
1.28167 -0.165069 2.24623
1.31412 -0.166551 2.2406
1.40658 -0.168919 2.24353
1.42672 -0.168963 2.24425
1.43555 -0.164881 2.24523
1.45745 -0.161317 2.24002
1.46453 -0.160941 2.24363
1.44644 -0.156628 2.24368
1.45418 -0.159201 2.24464
1.4752 -0.153563 2.24522
1.48226 -0.152878 2.24227
1.48556 -0.147056 2.24997
1.49224 -0.146922 2.24359
1.50426 -0.143658 2.24455
1.51222 -0.147944 2.24415
1.52077 -0.144828 2.24496
1.53037 -0.139829 2.24611
-0.537158 -0.0858587 2.24209
-0.540518 -0.0773615 2.24987
-0.534493 -0.0762122 2.24401
-0.53143 -0.0675972 2.24575
-0.526068 -0.0643937 2.24022
-0.525134 -0.0560771 2.24605
-0.518731 -0.0502564 2.24312
-0.514839 -0.0437062 2.24449
-0.514052 -0.0261405 2.24133
-0.517243 -0.0176745 2.24923
-0.518133 0.00681628 2.24067
-0.467294 0.000885776 2.2481
-0.476592 0.0125446 2.2433
-0.486451 0.0244585 2.24507
-0.494468 0.0302311 2.2458
1.00126 0.0390787 2.24732
-0.524006 0.0459324 2.24085
-0.510392 0.0425713 2.24078
-0.504112 0.0411309 2.24739
0.954408 0.0488628 2.24376
0.98348 0.0448684 2.247
0.994334 0.0456281 2.24302
1.00462 0.0453435 2.24405
1.01141 0.0438085 2.24712
1.02426 0.0492301 2.24093
1.11671 0.048165 2.2472
-0.520445 0.0545086 2.24251
-0.515424 0.0571619 2.24985
0.945672 0.0552855 2.24344
0.958871 0.0526924 2.24359
0.965417 0.0563327 2.24244
0.974227 0.0522599 2.24364
0.983915 0.0509283 2.24076
1.00796 0.0516063 2.24079
1.01386 0.0520194 2.24375
1.02271 0.0526393 2.24672
1.0342 0.054197 2.2437
1.04552 0.0539008 2.24276
1.05415 0.0528303 2.24481
1.06538 0.0549558 2.24474
1.0757 0.0546738 2.24478
1.08484 0.0526337 2.24292
1.10848 0.0586429 2.24073
1.11632 0.0551723 2.24091
1.1262 0.0538538 2.24398
1.13579 0.0572052 2.24286
1.14008 0.0568352 2.24685
1.16932 0.0598869 2.2468
1.1733 0.0581561 2.24095
1.46505 0.056973 2.2453
1.47479 0.0521275 2.24558
0.914092 0.0661386 2.2458
0.937372 0.060734 2.24611
1.0584 0.0611665 2.24047
1.0893 0.0603152 2.24356
1.09482 0.065726 2.24233
1.1016 0.0601713 2.24657
1.14726 0.0608553 2.24371
1.15592 0.0619639 2.24369
1.16236 0.0614098 2.24373
1.17621 0.0643889 2.24661
1.18241 0.0643202 2.2407
1.41577 0.0680941 2.24751
1.42377 0.0656396 2.24767
1.43056 0.0651099 2.24773
1.45531 0.0668427 2.2478
1.46963 0.06483 2.24197
0.901043 0.076279 2.24527
0.923796 0.0718424 2.24554
1.1863 0.0743907 2.24321
1.20213 0.0792671 2.24599
1.37002 0.0799652 2.2467
1.40625 0.0779791 2.24401
1.4182 0.0742939 2.24126
1.42186 0.0785697 2.24109
1.44376 0.0745758 2.24437
0.889817 0.089562 2.2446
1.18925 0.0803753 2.24588
1.19517 0.0807892 2.24589
1.20378 0.0818945 2.24291
1.21323 0.0870783 2.24565
1.22453 0.0888739 2.24561
1.23394 0.0885283 2.24566
1.25338 0.0868738 2.24582
1.26207 0.082458 2.24016
1.32615 0.0899579 2.246
1.35528 0.0884801 2.24326
1.36549 0.0821604 2.24361
1.37566 0.0861384 2.24347
1.38522 0.0860537 2.24353
1.39373 0.0859795 2.24259
1.42396 0.0852483 2.24378
1.43196 0.0827939 2.24393
0.880968 0.0969817 2.24421
1.2377 0.0928106 2.24547
1.24252 0.0951583 2.24538
1.2587 0.0937782 2.24551
1.28939 0.099444 2.24538
1.29705 0.0969653 2.24553
1.30301 0.0973824 2.24554
1.31456 0.0936687 2.24577
1.32981 0.0942343 2.24582
1.33522 0.0956179 2.24578
1.34004 0.0979652 2.24569
0.864908 0.107916 2.24653
0.872539 0.103426 2.24677
1.26639 0.101853 2.24516
1.27682 0.105096 2.24505
0.848975 0.11886 2.24881
0.856364 0.114855 2.24617
0.837357 0.134125 2.248
0.844508 0.130606 2.24249
0.49986 0.149691 2.24645
0.507189 0.142165 2.24404
0.514239 0.144668 2.24487
0.833663 0.143915 2.24181
0.484008 0.157626 2.24321
0.495498 0.152401 2.24256
0.516212 0.152846 2.24072
0.520897 0.157193 2.24611
0.824175 0.153803 2.24413
-0.626188 0.160304 2.24655
-0.235619 0.169556 2.24799
0.474528 0.162489 2.24294
0.519333 0.164118 2.24017
0.526815 0.164307 2.24204
0.530671 0.163907 2.24579
0.777373 0.167107 2.24429
0.785661 0.165175 2.24348
0.794095 0.165514 2.24348
0.805484 0.165558 2.2463
0.813834 0.166142 2.24349
-0.326864 0.177237 2.2444
-0.316975 0.17391 2.24463
-0.30616 0.17542 2.24461
-0.295965 0.178395 2.2454
-0.284753 0.17717 2.24731
-0.274118 0.177663 2.24466
-0.26388 0.175617 2.24482
-0.253294 0.175604 2.24487
-0.243712 0.174683 2.24587
-0.237638 0.173936 2.24234
-0.226872 0.174941 2.24504
0.463804 0.173797 2.24512
0.536902 0.173387 2.24531
0.546775 0.179103 2.24504
0.555536 0.177706 2.24513
0.733255 0.177083 2.24555
0.744307 0.177856 2.24553
0.756038 0.176668 2.24562
0.76536 0.174306 2.24576
0.772288 0.170771 2.24037
0.803147 0.171926 2.24038
-0.611191 0.189491 2.24504
-0.335452 0.186936 2.24384
-0.291701 0.182713 2.24162
-0.284152 0.180729 2.24176
-0.215056 0.183556 2.24465
-0.204191 0.185573 2.2446
-0.193754 0.184294 2.24472
-0.185319 0.18815 2.24456
-0.179854 0.189538 2.24183
0.419174 0.188259 2.24975
0.424663 0.188643 2.24974
0.433175 0.187732 2.24707
0.445491 0.181559 2.24467
0.454044 0.180651 2.24474
0.562949 0.181742 2.24494
0.572831 0.186956 2.24469
0.714931 0.189869 2.24485
0.72172 0.186324 2.24505
-0.603541 0.197061 2.24466
-0.373942 0.197724 2.24396
-0.364615 0.196953 2.24316
-0.356773 0.197251 2.24584
-0.344545 0.193585 2.24344
-0.17577 0.194178 2.24519
-0.168173 0.198897 2.24408
0.414049 0.196274 2.24565
0.426776 0.192308 2.24406
0.577617 0.193655 2.24803
0.584747 0.194824 2.24981
0.593695 0.196121 2.24793
0.600235 0.199426 2.24686
0.62852 0.197888 2.247
0.636184 0.197085 2.24797
0.643673 0.196939 2.24617
0.650677 0.198435 2.24427
0.667062 0.199582 2.24974
0.675873 0.198188 2.24434
0.684065 0.198762 2.24983
0.704153 0.197153 2.24445
-0.5944 0.209257 2.24664
-0.390581 0.207948 2.24508
-0.382859 0.204134 2.24357
-0.376706 0.20088 2.24025
-0.352494 0.201235 2.24212
-0.162169 0.205347 2.24377
-0.156529 0.208756 2.24362
0.377234 0.207431 2.24859
0.399308 0.206966 2.24595
0.405694 0.201886 2.24624
0.586058 0.200443 2.24403
0.606929 0.202071 2.24582
0.614017 0.203238 2.2476
0.622216 0.200462 2.24685
0.6495 0.202372 2.24955
0.656875 0.202553 2.2459
0.663739 0.201359 2.24689
0.675105 0.200647 2.2497
0.685414 0.203378 2.24409
0.69469 0.200511 2.24426
-0.586673 0.217335 2.24364
-0.424127 0.217659 2.24961
-0.397468 0.215171 2.2464
-0.150957 0.211658 2.2435
-0.145136 0.21709 2.24324
-0.139644 0.219484 2.24579
0.372359 0.215129 2.24454
0.384694 0.212224 2.24564
0.393034 0.211552 2.24569
-0.585322 0.221449 2.2486
-0.57674 0.224562 2.24587
-0.566424 0.225284 2.24589
-0.55547 0.22806 2.24578
-0.54759 0.229115 2.24317
-0.425082 0.224124 2.24663
-0.414865 0.224337 2.24668
-0.404813 0.223784 2.24676
-0.135627 0.22479 2.242
-0.125994 0.225213 2.24291
-0.11807 0.226019 2.24291
0.34664 0.228904 2.24464
0.354228 0.226588 2.24389
0.363832 0.223074 2.245
-0.553698 0.233711 2.24547
-0.542149 0.23586 2.24626
-0.535107 0.237023 2.24537
-0.52998 0.237381 2.24795
-0.474208 0.239276 2.24812
-0.427575 0.234501 2.24604
-0.112445 0.230433 2.2427
-0.10532 0.232271 2.24351
-0.0937171 0.235763 2.24514
0.334842 0.235615 2.24425
0.340767 0.23201 2.24446
0.357157 0.231148 2.24724
-0.525334 0.241726 2.2443
-0.5158 0.245743 2.24412
-0.503299 0.248628 2.24402
-0.495098 0.248197 2.2458
-0.485093 0.248228 2.24585
-0.47678 0.24211 2.24451
-0.465993 0.244875 2.24613
-0.455261 0.24437 2.24536
-0.445289 0.247329 2.2461
-0.434743 0.246058 2.24536
-0.428618 0.240457 2.24312
-0.085159 0.245406 2.24466
-0.0770631 0.24949 2.2471
-0.0666919 0.249211 2.24455
-0.0563297 0.248429 2.24726
-0.0484266 0.249987 2.24984
0.284674 0.249187 2.24603
0.294006 0.24582 2.24447
0.302793 0.247105 2.24443
0.3146 0.245755 2.24365
0.325623 0.243763 2.24379
-0.510985 0.25077 2.24728
-0.505596 0.252152 2.24723
-0.490925 0.251169 2.24224
-0.481031 0.250857 2.2423
-0.461215 0.250234 2.24243
-0.44083 0.251661 2.24246
-0.0743524 0.251187 2.2444
-0.0663897 0.253754 2.24953
-0.0447294 0.254266 2.24613
-0.0375644 0.258787 2.24678
-0.0116248 0.257588 2.24959
-0.00468022 0.257739 2.24613
0.276587 0.257665 2.24378
0.286984 0.252363 2.24056
0.30592 0.250674 2.24071
-0.0320668 0.265201 2.24645
-0.0242011 0.26751 2.24637
-0.0149371 0.261711 2.24587
-0.00111998 0.260333 2.24949
0.00591668 0.26384 2.24584
0.0172656 0.267398 2.24657
0.0250384 0.266184 2.24668
0.205735 0.268784 2.24993
0.213682 0.268335 2.24999
0.234678 0.269805 2.24474
0.242884 0.266862 2.24493
0.253849 0.263107 2.24517
0.264438 0.263346 2.24519
0.272623 0.261407 2.24005
0.009604 0.272138 2.24887
0.032949 0.273772 2.24629
0.0433709 0.278521 2.24867
0.0545884 0.277966 2.24703
0.0615031 0.278785 2.24615
0.0744672 0.279693 2.24616
0.0848552 0.279415 2.24881
0.0952862 0.277382 2.24638
0.104799 0.278801 2.24721
0.11606 0.27959 2.24894
0.194592 0.277299 2.24679
0.20543 0.272782 2.24447
0.216691 0.274575 2.24616
0.226394 0.273998 2.2471
0.234313 0.273799 2.24976
0.0434093 0.283548 2.24322
0.0511415 0.28007 2.24344
0.0666778 0.282162 2.24598
0.0744507 0.281701 2.24605
0.0847942 0.283933 2.24338
0.108135 0.284059 2.24347
0.115968 0.282598 2.24358
0.126303 0.284577 2.24611
0.136719 0.284302 2.24617
0.147215 0.282524 2.24631
0.154923 0.284822 2.24622
0.1618 0.286141 2.24704
0.173125 0.285594 2.24625
0.183564 0.285571 2.24629
0.165003 0.291055 2.24332
0.789011 -0.330728 2.25499
0.795112 -0.330351 2.25529
0.834928 -0.331478 2.25457
0.846154 -0.3308 2.25111
0.878997 -0.331997 2.25512
0.88547 -0.330538 2.25867
0.285164 -0.323989 2.25717
0.296804 -0.322828 2.25494
0.317236 -0.321206 2.25018
0.746112 -0.321447 2.25514
0.773219 -0.321465 2.25013
0.784796 -0.323365 2.25624
0.806172 -0.326267 2.25448
0.816126 -0.326609 2.25479
0.824278 -0.326195 2.25317
0.832259 -0.326425 2.25141
0.843557 -0.329287 2.25733
0.854471 -0.326179 2.25632
0.865824 -0.325218 2.25592
0.874233 -0.327552 2.25579
0.88566 -0.329824 2.25277
0.895134 -0.325076 2.25604
0.926785 -0.324054 2.2554
0.935622 -0.324945 2.25556
0.945684 -0.321993 2.25649
0.95546 -0.320003 2.25724
0.167321 -0.312694 2.25152
0.230457 -0.314135 2.2539
0.256406 -0.315275 2.25476
0.26506 -0.312686 2.25564
0.273729 -0.317523 2.25503
0.305666 -0.315939 2.25372
0.314247 -0.318157 2.2566
0.326023 -0.315027 2.25474
0.34062 -0.311418 2.25904
0.738357 -0.31571 2.25595
0.755804 -0.318589 2.25304
0.764977 -0.318027 2.25349
0.776782 -0.319088 2.25676
0.782979 -0.318483 2.25106
0.907316 -0.318127 2.2558
0.916174 -0.319019 2.25596
0.937931 -0.317499 2.25097
0.945059 -0.314251 2.25184
0.955015 -0.311783 2.25267
0.963809 -0.313039 2.25582
0.970742 -0.310638 2.25958
0.115171 -0.300482 2.25175
0.126678 -0.301648 2.25201
0.138189 -0.302813 2.25226
0.146759 -0.304288 2.2553
0.155248 -0.302424 2.25603
0.163067 -0.306471 2.25653
0.175654 -0.307102 2.25299
0.187922 -0.304458 2.25602
0.195736 -0.30666 2.25393
0.204426 -0.308529 2.25392
0.215767 -0.301756 2.25576
0.224584 -0.304268 2.25265
0.236114 -0.307776 2.25541
0.244776 -0.307167 2.2559
0.334977 -0.307515 2.2566
0.34384 -0.307059 2.25407
0.352887 -0.30005 2.25582
0.373544 -0.301411 2.2504
0.728833 -0.304101 2.25174
0.734242 -0.306998 2.25443
0.97125 -0.308956 2.2538
0.108745 -0.290921 2.25339
0.114647 -0.296198 2.25852
0.122506 -0.298404 2.25643
0.134791 -0.295899 2.25648
0.359009 -0.295848 2.25391
0.364808 -0.29792 2.25373
0.373609 -0.297192 2.25724
0.385657 -0.293836 2.25538
0.403614 -0.29157 2.25354
0.715482 -0.295441 2.25592
0.725929 -0.298683 2.25672
0.98441 -0.297016 2.25345
0.994492 -0.29456 2.25428
1.0021 -0.290367 2.25533
0.044832 -0.281343 2.25556
0.0506566 -0.282428 2.25559
0.079528 -0.284001 2.25353
0.0854419 -0.287436 2.25607
0.105548 -0.287987 2.25682
0.394775 -0.289557 2.25659
0.412775 -0.287542 2.25469
0.449118 -0.281561 2.25124
0.455217 -0.280195 2.25175
0.708287 -0.286166 2.25435
1.01099 -0.282455 2.25403
0.00698375 -0.273682 2.2525
0.0152131 -0.271907 2.25619
0.035763 -0.275608 2.25334
0.0558856 -0.277512 2.2568
0.0727471 -0.272423 2.25556
0.0933313 -0.277478 2.25543
0.419414 -0.278432 2.2537
0.425521 -0.276572 2.2543
0.434371 -0.27821 2.25434
0.445471 -0.276399 2.25615
0.455712 -0.273056 2.25924
0.461675 -0.274901 2.25302
0.69593 -0.271779 2.25045
0.704265 -0.275846 2.25615
1.01998 -0.274433 2.25584
1.02702 -0.272166 2.25651
-0.002435 -0.266788 2.25347
0.00602775 -0.267874 2.25959
0.0197002 -0.260119 2.25576
0.0231583 -0.266277 2.25766
0.0609379 -0.269247 2.25569
0.493135 -0.261848 2.2537
0.684838 -0.26558 2.25427
0.696885 -0.266674 2.25761
1.02822 -0.268554 2.25099
1.03636 -0.263303 2.25536
1.04311 -0.261998 2.25585
-0.254352 -0.252253 2.25454
-0.246908 -0.251897 2.25394
-0.234758 -0.251402 2.25257
-0.226876 -0.250446 2.25905
-0.207272 -0.253841 2.25721
-0.183867 -0.252596 2.25451
-0.175123 -0.253977 2.2546
-0.169771 -0.252539 2.25512
-0.13595 -0.250292 2.25106
-0.0158492 -0.251567 2.25595
-0.00925231 -0.258176 2.25491
0.0653468 -0.254841 2.25877
0.469061 -0.259789 2.25621
0.475517 -0.256104 2.25411
0.484358 -0.258732 2.25395
0.502176 -0.252643 2.25684
0.526326 -0.254833 2.25532
0.533466 -0.254521 2.25668
0.677709 -0.254449 2.25609
1.05322 -0.251225 2.25504
-0.285033 -0.240869 2.25258
-0.261486 -0.245232 2.25269
-0.244616 -0.246671 2.25907
-0.23621 -0.246533 2.25945
-0.223764 -0.246652 2.25599
-0.2161 -0.246858 2.25429
-0.204351 -0.249037 2.25435
-0.196675 -0.245361 2.25543
-0.163635 -0.24443 2.25305
-0.145896 -0.24346 2.255
-0.133748 -0.242749 2.25666
-0.123292 -0.242532 2.25616
-0.114406 -0.244422 2.25616
-0.108779 -0.243143 2.25365
-0.0404215 -0.240167 2.25718
-0.0342143 -0.24241 2.25398
-0.0258196 -0.248003 2.25423
0.507019 -0.246024 2.25417
0.516351 -0.244487 2.25483
0.543389 -0.248705 2.25509
0.550556 -0.240505 2.25692
0.674166 -0.240326 2.25549
1.06104 -0.247051 2.25609
-0.304396 -0.231848 2.25658
-0.293902 -0.235924 2.2552
-0.280283 -0.237391 2.25348
-0.27501 -0.235945 2.254
-0.26593 -0.239205 2.25671
-0.161208 -0.23856 2.25833
-0.155516 -0.237783 2.25573
-0.104166 -0.23668 2.25515
-0.0960896 -0.233537 2.25612
-0.0851618 -0.235391 2.25421
-0.0756342 -0.233887 2.25089
-0.065943 -0.235113 2.25307
-0.0550257 -0.237827 2.25401
-0.0444487 -0.23762 2.25349
0.555235 -0.236509 2.25371
0.564152 -0.231089 2.25611
0.57664 -0.230484 2.25359
0.66704 -0.234065 2.2543
1.07118 -0.236388 2.25206
-0.314335 -0.225532 2.25445
-0.0738142 -0.228863 2.25801
0.570513 -0.229748 2.25661
0.58663 -0.225541 2.25489
0.596662 -0.220603 2.2562
0.615088 -0.222694 2.25025
0.624456 -0.222284 2.25381
0.646281 -0.222255 2.25465
0.65472 -0.22757 2.25399
0.664256 -0.226663 2.25138
1.07377 -0.229477 2.25974
1.08188 -0.22456 2.25456
-0.343108 -0.213218 2.25574
-0.334819 -0.215463 2.25363
-0.325079 -0.217021 2.25573
0.596851 -0.219861 2.25007
0.606432 -0.217985 2.25392
0.61581 -0.217577 2.2575
0.634811 -0.216137 2.25535
0.640797 -0.217733 2.25528
1.08559 -0.21423 2.25015
1.09941 -0.211651 2.25111
-0.3514 -0.203105 2.25443
-0.344619 -0.206396 2.25104
1.09532 -0.205281 2.25208
1.10604 -0.205557 2.25669
1.11617 -0.201423 2.25351
-0.370423 -0.196231 2.25502
-0.364409 -0.197335 2.25505
-0.358826 -0.196909 2.25537
1.09795 -0.198383 2.25981
1.16459 -0.193602 2.25018
1.17047 -0.195188 2.25012
1.18416 -0.193588 2.25089
1.365 -0.193447 2.25748
1.37212 -0.198841 2.25033
-0.378057 -0.189519 2.25606
1.12714 -0.189619 2.25598
1.13635 -0.182602 2.25754
1.14931 -0.182915 2.25796
1.1541 -0.187371 2.25735
1.16561 -0.183069 2.25852
1.17762 -0.18577 2.25848
1.18861 -0.182905 2.25938
1.19423 -0.185064 2.25597
1.22387 -0.184677 2.25386
1.30128 -0.180763 2.25083
1.31612 -0.184644 2.25396
1.32444 -0.181011 2.25488
1.33382 -0.182058 2.25179
1.34295 -0.181587 2.25437
1.35883 -0.185474 2.25537
1.38638 -0.183385 2.25347
1.14412 -0.179413 2.25838
1.20339 -0.178638 2.25416
1.21464 -0.175303 2.25515
1.23657 -0.178011 2.25547
1.24617 -0.171031 2.25702
1.28661 -0.174249 2.25358
1.29538 -0.179175 2.25088
1.30585 -0.171088 2.25918
1.31046 -0.175527 2.25858
1.32995 -0.176499 2.25912
1.33585 -0.178088 2.25906
1.34855 -0.179369 2.25931
1.35555 -0.178287 2.25321
1.39885 -0.171724 2.2559
1.41869 -0.171934 2.25003
-0.39097 -0.164082 2.25758
-0.389016 -0.16948 2.25047
1.25385 -0.168427 2.25448
1.26374 -0.16598 2.25417
1.27369 -0.163605 2.25712
1.28094 -0.167185 2.25567
1.29653 -0.169652 2.25909
1.40761 -0.167638 2.25692
1.41401 -0.168284 2.25704
1.4265 -0.165635 2.25575
1.43549 -0.16558 2.25499
1.44337 -0.163392 2.25565
1.45126 -0.161207 2.2563
1.45952 -0.15816 2.25381
1.46646 -0.157866 2.25411
1.4744 -0.155685 2.25477
1.48636 -0.145957 2.25683
1.49622 -0.140085 2.25483
1.5099 -0.14038 2.25862
1.51559 -0.146649 2.25556
1.52057 -0.145618 2.25148
1.53049 -0.140471 2.25936
1.50501 -0.136497 2.25575
1.51264 -0.134873 2.25295
1.53172 -0.137794 2.25317
1.55123 -0.114901 2.25763
-0.535732 -0.0738798 2.25072
-0.551771 -0.0627336 2.2554
-0.544584 -0.0668173 2.25807
-0.534975 -0.0652182 2.25664
-0.528857 -0.0587142 2.25389
-0.523498 -0.046972 2.25314
-0.525549 -0.0322853 2.25907
-0.519398 -0.0311332 2.25309
-0.498549 -0.0391883 2.25239
-0.520003 0.0292223 2.25783
-0.485821 0.0272952 2.25441
-0.473979 0.0215963 2.25822
-0.496503 0.0346891 2.25646
-0.483526 0.0324797 2.25987
0.94742 0.0363147 2.25928
0.98641 0.0380392 2.25631
0.990644 0.0353209 2.25347
1.00719 0.0394937 2.25628
1.01486 0.0360108 2.25649
1.02124 0.0354525 2.25953
-0.505906 0.0454674 2.25475
0.937889 0.0446917 2.2588
0.946153 0.0467776 2.25276
0.950112 0.0445425 2.25884
0.972721 0.0486374 2.25571
0.982182 0.0407579 2.25913
0.994042 0.0415882 2.25614
1.00061 0.0405407 2.25621
1.0182 0.0422743 2.25318
1.02589 0.0455759 2.25602
1.03622 0.0430334 2.25618
1.04524 0.0434134 2.25619
1.05246 0.047687 2.25598
1.06409 0.0490039 2.25594
1.10683 0.049483 2.25904
1.11587 0.0477716 2.25518
1.48368 0.0437057 2.25513
0.926818 0.0569805 2.25811
0.954376 0.0561461 2.25526
0.963097 0.0570078 2.25524
1.05748 0.0500485 2.25587
1.06865 0.0523374 2.25578
1.07603 0.0561201 2.25561
1.08572 0.0550402 2.25569
1.09456 0.0536492 2.2548
1.1029 0.0512183 2.25595
1.11728 0.0532296 2.25887
1.12668 0.0528826 2.25594
1.13546 0.0578521 2.2567
1.14338 0.0584064 2.25472
1.15428 0.0571596 2.25482
1.16406 0.0541591 2.257
1.17108 0.0564934 2.25591
1.46851 0.0567127 2.25439
-0.526041 0.0693301 2.25834
-0.517556 0.0625196 2.25742
0.899846 0.0641366 2.25765
0.904918 0.0665013 2.25754
0.913591 0.0673597 2.25457
0.922458 0.0677291 2.25163
0.930701 0.0622766 2.25193
1.17375 0.0632116 2.25557
1.4164 0.0671337 2.25654
1.42503 0.063718 2.25677
1.43244 0.0622272 2.25689
1.44511 0.0676361 2.2597
1.45975 0.060119 2.25416
-0.526494 0.0721756 2.25212
0.901814 0.0743233 2.25124
1.17622 0.0741038 2.25599
1.18463 0.0736877 2.25408
1.19572 0.074045 2.25509
1.37034 0.079485 2.25564
1.40628 0.0729568 2.25619
1.42928 0.0770789 2.25313
1.43548 0.0724888 2.25639
1.4441 0.074097 2.25337
0.887091 0.0813318 2.25669
0.892128 0.0836943 2.25073
1.19847 0.0860448 2.25447
1.20543 0.0845221 2.25458
1.21549 0.0829659 2.2547
1.25553 0.0885317 2.25164
1.32674 0.0889944 2.25196
1.35479 0.0876086 2.25612
1.36218 0.0824311 2.25248
1.37599 0.0856589 2.25536
1.38615 0.0846119 2.25547
1.39498 0.0807073 2.25572
0.874813 0.0975557 2.25577
0.882495 0.093069 2.25022
1.21783 0.0954396 2.25699
1.22372 0.0958521 2.2526
1.2339 0.0995791 2.25099
1.24549 0.0953659 2.25419
1.25705 0.0966777 2.25417
1.26511 0.0987488 2.2541
1.27103 0.0991633 2.25118
1.28997 0.0984797 2.25424
1.29649 0.0979307 2.25136
1.306 0.0975921 2.25436
1.31605 0.0929356 2.25367
1.32625 0.09499 2.25755
1.33519 0.092266 2.25381
1.34301 0.0931481 2.25479
0.85992 0.105557 2.2553
0.866409 0.104002 2.2554
1.22585 0.103035 2.25662
1.23386 0.105103 2.25655
1.25586 0.104131 2.2567
1.2688 0.103027 2.25683
1.27631 0.104223 2.2529
1.28064 0.103856 2.25684
1.29365 0.102756 2.25696
1.30016 0.102208 2.25703
0.852323 0.11005 2.25504
0.833158 0.129811 2.25963
0.84031 0.126292 2.25413
0.50782 0.139195 2.2583
0.499853 0.149691 2.25206
0.503828 0.144442 2.25517
0.514611 0.147207 2.25505
0.805861 0.140964 2.25892
0.813946 0.142535 2.25885
0.82557 0.142344 2.25606
0.475221 0.15902 2.25708
0.484255 0.156387 2.25446
0.493725 0.151774 2.25474
0.522894 0.156663 2.25361
0.776069 0.159982 2.25776
0.785837 0.156646 2.25798
0.79669 0.150371 2.25836
0.803674 0.15488 2.25249
0.815766 0.153214 2.2526
-0.26216 0.169708 2.25594
-0.251579 0.169443 2.25602
-0.243895 0.167469 2.25888
-0.23575 0.168542 2.25887
0.467454 0.169531 2.25368
0.475025 0.160012 2.25144
0.527649 0.1647 2.25411
0.755957 0.168623 2.25722
0.766012 0.166982 2.25547
0.774002 0.165866 2.25182
0.783917 0.162039 2.25205
0.792805 0.161153 2.25212
-0.621315 0.174714 2.25374
-0.334232 0.179736 2.25762
-0.326939 0.176729 2.25784
-0.31721 0.177243 2.25429
-0.306001 0.176185 2.25531
-0.296184 0.17704 2.25622
-0.284913 0.176154 2.25544
-0.274606 0.174614 2.25558
-0.267116 0.171873 2.25579
-0.256712 0.170591 2.25592
-0.243447 0.170515 2.2533
-0.235313 0.171587 2.25328
-0.226961 0.174181 2.25588
-0.218199 0.179819 2.2583
0.446115 0.173396 2.25248
0.453031 0.176225 2.25419
0.460532 0.17608 2.25329
0.528819 0.171816 2.25649
0.535727 0.178329 2.2506
0.549998 0.177318 2.25623
0.554332 0.174942 2.25268
0.563989 0.177544 2.25348
0.734726 0.172664 2.25136
0.745296 0.174911 2.25405
0.756029 0.176667 2.25119
-0.363643 0.189234 2.25422
-0.35614 0.187749 2.25701
-0.343428 0.186127 2.25718
-0.336574 0.185601 2.2537
-0.326068 0.181312 2.25222
-0.313149 0.180207 2.25772
-0.292041 0.180679 2.25245
-0.21408 0.184127 2.25448
-0.20384 0.18811 2.2552
-0.194382 0.186176 2.25447
0.419347 0.187266 2.2553
0.424657 0.188643 2.25524
0.434984 0.183001 2.25375
0.534901 0.181789 2.25593
0.543409 0.181379 2.25321
0.570576 0.184788 2.25309
0.724782 0.185534 2.25341
0.735012 0.18022 2.25651
-0.610153 0.192578 2.25538
-0.605743 0.195567 2.25173
-0.392655 0.198759 2.25615
-0.384971 0.194607 2.25467
-0.375177 0.195963 2.25376
-0.367722 0.194475 2.25389
-0.354561 0.195396 2.25126
-0.345239 0.194374 2.25314
-0.190263 0.190819 2.2578
-0.184743 0.192712 2.25504
-0.178866 0.197646 2.25212
0.406118 0.199404 2.25457
0.412627 0.19383 2.25491
0.576778 0.193262 2.25538
0.584998 0.193837 2.25537
0.593343 0.193919 2.25539
0.603357 0.198137 2.25517
0.611555 0.198711 2.25516
0.627944 0.199858 2.25513
0.675553 0.199171 2.25528
0.68498 0.195811 2.2555
0.694445 0.192454 2.25295
0.705486 0.192976 2.25295
0.715241 0.19458 2.2538
-0.594906 0.207714 2.25716
-0.394518 0.205663 2.25221
-0.387184 0.200147 2.25081
-0.174676 0.203299 2.25537
-0.165252 0.208983 2.25332
-0.156462 0.209263 2.25158
0.388749 0.204217 2.25969
0.395785 0.20605 2.25598
0.400314 0.201007 2.25992
0.616192 0.20205 2.25498
0.621368 0.203417 2.25491
0.636136 0.200432 2.25512
0.646907 0.201688 2.25507
0.654947 0.202753 2.25503
0.663726 0.201358 2.25513
-0.585168 0.21677 2.25753
-0.565637 0.219812 2.25397
-0.426584 0.217989 2.25742
-0.418929 0.218023 2.25485
-0.40455 0.214005 2.25517
-0.161299 0.212944 2.25665
-0.15274 0.211199 2.25503
-0.14512 0.217091 2.25385
-0.137242 0.21714 2.25654
-0.129265 0.218201 2.25652
0.369761 0.219971 2.25599
0.375477 0.218362 2.2561
0.38366 0.212905 2.25554
-0.574819 0.222686 2.25505
-0.566746 0.224256 2.25888
-0.558848 0.225312 2.25368
-0.431929 0.227162 2.25943
-0.425573 0.22208 2.25718
-0.413247 0.22043 2.25474
-0.136644 0.223212 2.25089
-0.125429 0.221819 2.2528
-0.116178 0.227491 2.25428
-0.107341 0.22878 2.25602
0.335952 0.227654 2.25812
0.344376 0.225731 2.25558
0.355062 0.226982 2.25822
0.363439 0.225558 2.25565
-0.553051 0.233087 2.25668
-0.499823 0.237483 2.25841
-0.479327 0.238917 2.25327
-0.462204 0.237101 2.25864
-0.456855 0.235131 2.25535
-0.432841 0.23363 2.25643
-0.112346 0.231444 2.25056
-0.103472 0.233405 2.25225
-0.0935853 0.23728 2.25296
-0.0840763 0.236438 2.25393
0.326432 0.23779 2.25481
0.335396 0.231634 2.25251
0.354321 0.231954 2.25256
-0.54408 0.240414 2.25542
-0.535699 0.243262 2.25529
-0.525249 0.244747 2.25525
-0.514965 0.245718 2.25525
-0.505424 0.244125 2.25796
-0.494556 0.244216 2.25459
-0.485647 0.243248 2.25555
-0.474405 0.244621 2.25639
-0.466351 0.24351 2.25478
-0.445822 0.242016 2.25585
-0.436277 0.243271 2.25496
-0.0802879 0.240723 2.2502
-0.0746189 0.247149 2.2551
-0.0566841 0.242375 2.25548
-0.0484766 0.248979 2.25514
0.293385 0.243516 2.25436
0.303849 0.245756 2.25427
0.315018 0.242518 2.25449
-0.503045 0.252331 2.25235
-0.0665807 0.250726 2.25493
-0.0427863 0.257919 2.25724
-0.0358342 0.258573 2.25637
-0.0272295 0.257501 2.25474
-0.0151342 0.256337 2.25662
-0.00653773 0.253925 2.25506
0.240953 0.25919 2.25589
0.257091 0.257305 2.25606
0.265387 0.254369 2.25627
0.272836 0.259412 2.256
0.284266 0.252675 2.25379
-0.0218616 0.261393 2.25714
-0.00109598 0.260837 2.25729
0.00430824 0.267747 2.2569
0.0173179 0.269161 2.25948
0.025105 0.269203 2.25952
0.0458869 0.267643 2.25973
0.0528294 0.267124 2.25806
0.0615212 0.267733 2.2598
0.205773 0.268284 2.2552
0.213842 0.266336 2.25535
0.234857 0.267807 2.25535
0.243997 0.264428 2.25208
0.253068 0.262048 2.25225
0.264225 0.265341 2.25035
0.27599 0.262982 2.25228
0.0095984 0.271635 2.25669
0.0173457 0.27067 2.25419
0.0251184 0.270209 2.25426
0.0329631 0.274024 2.25666
0.0424615 0.273098 2.25591
0.0563124 0.272393 2.25428
0.0641124 0.273943 2.25683
0.0874562 0.279597 2.25919
0.0952633 0.278888 2.25668
0.105682 0.278361 2.25676
0.116102 0.278336 2.25681
0.126583 0.276809 2.25956
0.134295 0.279861 2.2594
0.15535 0.27631 2.25972
0.164007 0.277586 2.25621
0.171054 0.276405 2.25718
0.184036 0.278319 2.25712
0.194855 0.273549 2.25485
0.218765 0.270701 2.25511
0.226501 0.272749 2.25502
0.0666866 0.281158 2.25381
0.0744399 0.283962 2.25627
0.0839614 0.282032 2.25557
0.126424 0.28132 2.25408
0.137707 0.28144 2.25586
0.147172 0.283526 2.25664
0.154949 0.284322 2.25403
0.175998 0.281273 2.25691
0.181236 0.281137 2.25434
0.77691 -0.330968 2.26652
0.795165 -0.330096 2.26137
0.806951 -0.331024 2.26766
0.824988 -0.33112 2.2623
0.833433 -0.333328 2.26521
0.842392 -0.333605 2.26851
0.276446 -0.320496 2.26047
0.287795 -0.32533 2.26588
0.746997 -0.321766 2.26518
0.754559 -0.323763 2.26709
0.763264 -0.325135 2.26715
0.771506 -0.328442 2.26681
0.786802 -0.32739 2.26459
0.795698 -0.327909 2.26785
0.803982 -0.326935 2.26433
0.815273 -0.322087 2.26672
0.822381 -0.325732 2.26729
0.84363 -0.329036 2.26342
0.851356 -0.322879 2.26491
0.865803 -0.325326 2.26498
0.876887 -0.32892 2.2647
0.886965 -0.325477 2.26575
0.893418 -0.324145 2.26626
0.900646 -0.320174 2.26123
0.916119 -0.322639 2.26336
0.925846 -0.32395 2.26347
0.933289 -0.322841 2.26498
0.944878 -0.324631 2.26203
0.954957 -0.321682 2.26298
0.235813 -0.311164 2.26659
0.247542 -0.311632 2.26105
0.25521 -0.314298 2.26281
0.273492 -0.311154 2.26522
0.282066 -0.318813 2.26698
0.296652 -0.315972 2.26521
0.30552 -0.31057 2.26371
0.313154 -0.314222 2.26528
0.325831 -0.313614 2.26394
0.738503 -0.314843 2.2652
0.743849 -0.317988 2.26177
0.755634 -0.319176 2.26199
0.765262 -0.316679 2.26284
0.777054 -0.317868 2.26306
0.858851 -0.31769 2.26621
0.905125 -0.318804 2.26571
0.91313 -0.319196 2.26797
0.937959 -0.317735 2.26919
0.946522 -0.319588 2.26915
0.966168 -0.315378 2.26461
0.977117 -0.310039 2.26605
0.155028 -0.305818 2.26718
0.162748 -0.306645 2.26636
0.172265 -0.300053 2.2602
0.186601 -0.300875 2.26362
0.195397 -0.302395 2.26072
0.201151 -0.301988 2.26104
0.224252 -0.305676 2.26425
0.232046 -0.308984 2.26291
0.243509 -0.306426 2.26591
0.258916 -0.308555 2.26811
0.264789 -0.305326 2.26605
0.305384 -0.309299 2.26993
0.334871 -0.30364 2.26634
0.34465 -0.304718 2.26454
0.354531 -0.303165 2.26326
0.716823 -0.303121 2.26971
0.726021 -0.302688 2.26711
0.734288 -0.306494 2.26668
0.985301 -0.303926 2.26753
0.0855028 -0.293335 2.26676
0.0968708 -0.291159 2.26473
0.108494 -0.293325 2.26478
0.114195 -0.292913 2.26511
0.122963 -0.295285 2.26501
0.134294 -0.29297 2.26597
0.146035 -0.297127 2.26562
0.17578 -0.295611 2.26523
0.183504 -0.297953 2.26707
0.195093 -0.299127 2.26732
0.204751 -0.297884 2.266
0.215374 -0.297107 2.26562
0.358679 -0.29516 2.26906
0.364506 -0.298355 2.26565
0.373698 -0.292484 2.2642
0.388266 -0.296432 2.264
0.71545 -0.295309 2.2651
0.984598 -0.296667 2.26274
0.078937 -0.282416 2.26575
0.0907659 -0.286582 2.2654
0.102338 -0.286403 2.26296
0.131371 -0.288983 2.2607
0.3827 -0.289929 2.26508
0.394883 -0.28423 2.26672
0.402985 -0.282909 2.26328
0.413065 -0.280254 2.26522
0.696157 -0.285437 2.26628
0.706113 -0.286524 2.26441
0.99663 -0.28846 2.26475
1.00263 -0.289064 2.26485
1.01152 -0.281157 2.26358
0.0491917 -0.271487 2.26671
0.0789232 -0.279712 2.26033
0.0931258 -0.277687 2.26135
0.407518 -0.272635 2.26956
0.419399 -0.274952 2.26654
0.425378 -0.275061 2.26676
0.434456 -0.274619 2.26417
0.446088 -0.278392 2.26694
0.455701 -0.271813 2.26558
0.694012 -0.275806 2.26397
0.703491 -0.279487 2.26157
1.01886 -0.277931 2.26446
1.02622 -0.274706 2.26534
-0.00525827 -0.262188 2.26226
0.00501495 -0.261569 2.26683
0.0142624 -0.266958 2.26612
0.0239883 -0.267702 2.26439
0.0346013 -0.268162 2.26376
0.0432828 -0.269899 2.26678
0.0542042 -0.264079 2.26845
0.0718643 -0.266493 2.26571
0.462361 -0.265182 2.2641
0.684459 -0.26704 2.26632
1.03657 -0.262975 2.26481
-0.203802 -0.254492 2.26516
-0.196364 -0.253686 2.26366
-0.0162258 -0.251632 2.26494
-0.00957853 -0.259596 2.2666
0.0594392 -0.257318 2.26705
0.0648071 -0.251558 2.26544
0.469372 -0.254498 2.26647
0.475891 -0.250324 2.26447
0.484447 -0.256143 2.26368
0.493766 -0.254112 2.26444
0.53671 -0.252129 2.26345
0.677334 -0.256035 2.26507
1.04706 -0.251139 2.26741
1.05302 -0.251968 2.26118
-0.253422 -0.246501 2.26467
-0.245256 -0.245349 2.26527
-0.236373 -0.247238 2.26526
-0.22819 -0.246088 2.26585
-0.213908 -0.246184 2.26347
-0.19363 -0.247876 2.26101
-0.185684 -0.246074 2.26471
-0.175249 -0.24169 2.26608
-0.146571 -0.242253 2.26421
-0.135336 -0.241412 2.26487
-0.123899 -0.241582 2.26533
-0.115445 -0.240954 2.26583
-0.109633 -0.240684 2.26313
-0.0347391 -0.241473 2.26319
-0.0245983 -0.246044 2.26472
0.503682 -0.246691 2.26628
0.516218 -0.244362 2.26414
0.525572 -0.242462 2.26798
0.531049 -0.247969 2.26712
0.543783 -0.24442 2.26521
0.55034 -0.241118 2.26611
0.672985 -0.246299 2.26366
1.05727 -0.240267 2.26981
1.06257 -0.243009 2.26318
-0.305045 -0.231384 2.26561
-0.29727 -0.231929 2.26383
-0.284571 -0.233588 2.26303
-0.27614 -0.233452 2.26342
-0.267829 -0.236888 2.26407
-0.22424 -0.238575 2.26759
-0.21845 -0.239161 2.26772
-0.164375 -0.238471 2.26421
-0.156153 -0.23683 2.26491
-0.104412 -0.237749 2.26395
-0.0964191 -0.234105 2.26504
-0.0852164 -0.231411 2.26306
-0.0533068 -0.232664 2.26418
-0.0430647 -0.237575 2.26564
0.557202 -0.235983 2.26426
0.563546 -0.234641 2.26476
0.570299 -0.230367 2.26585
0.669021 -0.234003 2.26585
-0.333866 -0.221631 2.26441
-0.329421 -0.223246 2.26027
-0.315796 -0.22202 2.2641
-0.0858665 -0.229109 2.26955
-0.0745262 -0.22606 2.2646
-0.0657939 -0.22645 2.2649
-0.059619 -0.229055 2.26464
0.576969 -0.227193 2.26359
0.583425 -0.225366 2.26419
0.593026 -0.223361 2.26495
0.602602 -0.221964 2.26245
0.652296 -0.223013 2.26416
0.664394 -0.225225 2.26421
1.07496 -0.2264 2.26669
-0.343926 -0.212248 2.26493
-0.325333 -0.218087 2.26451
0.606236 -0.218251 2.26643
0.616531 -0.212464 2.26478
0.625688 -0.213884 2.26487
0.635324 -0.212378 2.26552
0.643746 -0.218185 2.26475
0.659115 -0.219736 2.26504
1.08544 -0.215163 2.26595
-0.352224 -0.202139 2.26365
1.1064 -0.202001 2.26591
-0.37243 -0.19119 2.26505
-0.365677 -0.194841 2.26458
-0.359514 -0.196454 2.26451
1.09952 -0.19436 2.26704
1.11731 -0.19874 2.26368
1.12884 -0.185509 2.26647
1.19628 -0.180496 2.26659
1.20259 -0.181132 2.26671
1.21541 -0.181634 2.26058
1.22447 -0.183541 2.26058
1.3674 -0.182065 2.26606
1.38123 -0.180679 2.26028
-0.382137 -0.177345 2.26749
1.13835 -0.177635 2.26499
1.14613 -0.174449 2.26584
1.15617 -0.173971 2.26629
1.16735 -0.170631 2.26729
1.17331 -0.172224 2.26722
1.18261 -0.173657 2.26731
1.19035 -0.178906 2.26666
1.20654 -0.17925 2.26068
1.21444 -0.17637 2.26799
1.22513 -0.174469 2.26872
1.23574 -0.172661 2.26616
1.27895 -0.172151 2.26456
1.28615 -0.170891 2.26504
1.31968 -0.1703 2.26637
1.32472 -0.173787 2.26595
1.33381 -0.175698 2.26594
1.3429 -0.177607 2.26594
1.3548 -0.173443 2.26383
1.36425 -0.174795 2.26722
1.37513 -0.179866 2.26673
1.38336 -0.176723 2.26759
1.39473 -0.171646 2.26671
1.2472 -0.168949 2.26396
1.2552 -0.165783 2.26481
1.26405 -0.160717 2.26602
1.27319 -0.162632 2.26602
1.2955 -0.164882 2.26644
1.30403 -0.160776 2.26747
1.31274 -0.163641 2.26729
1.36015 -0.169417 2.26801
1.40539 -0.165731 2.26374
1.41619 -0.164337 2.26438
1.42404 -0.162149 2.26504
1.4344 -0.161704 2.2655
1.44331 -0.164094 2.26542
1.45121 -0.16191 2.26609
1.46386 -0.154703 2.26338
1.47373 -0.153318 2.26619
1.48446 -0.150364 2.26931
1.48666 -0.145803 2.26352
1.51434 -0.145285 2.26463
1.49718 -0.138914 2.26507
1.50673 -0.133915 2.26627
1.53236 -0.137496 2.26661
1.55259 -0.112877 2.26477
-0.543809 -0.106064 2.26298
-0.546305 -0.0731343 2.26945
-0.555887 -0.0614934 2.26502
-0.54307 -0.0637776 2.26508
-0.532516 -0.0560001 2.2649
-0.528283 -0.0436905 2.2632
-0.533197 -0.0104951 2.26944
-0.533707 0.0111608 2.26706
-0.469891 0.0273229 2.26607
-0.491121 0.0354176 2.26675
-0.486215 0.0398794 2.26779
-0.479739 0.0392248 2.26792
0.94028 0.0388297 2.2651
0.95213 0.0396592 2.26508
0.986191 0.0385264 2.26524
0.995305 0.0386618 2.26526
1.0055 0.0363605 2.26542
1.01614 0.0330862 2.26564
1.02377 0.0366347 2.26546
1.03776 0.0396241 2.26533
1.05056 0.0385099 2.26544
-0.506839 0.0463338 2.26486
-0.498857 0.0401654 2.26734
0.931576 0.0452546 2.26471
0.9454 0.041198 2.26498
0.957239 0.0420267 2.26496
0.964678 0.0460645 2.26475
0.975415 0.0422939 2.265
1.02962 0.0440784 2.26505
1.04327 0.0410143 2.26527
1.05542 0.0478941 2.26492
1.10135 0.0480948 2.26506
1.16291 0.0483846 2.26527
1.17314 0.0465881 2.26541
1.47457 0.0475901 2.26397
1.48178 0.046588 2.26104
-0.522987 0.058288 2.26312
-0.516014 0.0547888 2.26942
0.90489 0.0589627 2.26681
0.921332 0.0555916 2.26409
1.06568 0.0521298 2.26471
1.07568 0.0568492 2.26448
1.08525 0.0560119 2.26456
1.09399 0.0505943 2.26489
1.10587 0.051426 2.26489
1.11263 0.056421 2.26463
1.12129 0.0575297 2.2646
1.1386 0.0597466 2.26454
1.14652 0.0562809 2.26476
1.15545 0.0508766 2.2651
1.17578 0.0593341 2.26471
1.4642 0.053396 2.26359
-0.518721 0.0648 2.26449
0.886986 0.0662511 2.26928
0.892449 0.0676384 2.26627
0.903728 0.061896 2.26663
0.911538 0.064955 2.26353
1.12775 0.0630065 2.26431
1.18902 0.0693051 2.2642
1.40844 0.0695913 2.26535
1.4152 0.0690592 2.26542
1.42691 0.0608348 2.26595
1.43494 0.0634069 2.26586
1.44422 0.0640567 2.26589
1.45168 0.062569 2.26602
0.877739 0.0746478 2.26875
1.17612 0.0704123 2.26408
1.18205 0.0708275 2.26408
1.19702 0.0735495 2.26597
1.39683 0.0778221 2.26482
0.864523 0.0857815 2.26805
0.880138 0.0838599 2.26237
1.19952 0.0841086 2.26341
1.20609 0.0833123 2.2679
1.2151 0.0836918 2.2635
1.35923 0.0872492 2.26406
1.36678 0.0852652 2.26718
1.37553 0.0813561 2.26449
1.38465 0.0819944 2.26451
0.864419 0.0938133 2.26176
0.871318 0.0912815 2.26192
1.21587 0.0953025 2.26676
1.22481 0.0976028 2.26668
1.24955 0.0936404 2.26311
1.25548 0.0940553 2.26311
1.31613 0.096291 2.26331
1.32153 0.0976738 2.26326
1.33291 0.0994754 2.26323
1.34406 0.0948963 2.26748
1.35384 0.0908916 2.26679
0.849918 0.100838 2.26711
0.856043 0.100262 2.26137
1.22744 0.105659 2.26233
1.23585 0.1034 2.26639
1.24462 0.102339 2.26845
1.25464 0.102706 2.26653
1.26557 0.103304 2.26558
1.27684 0.105097 2.26553
1.28544 0.106202 2.26259
1.29702 0.107515 2.26551
1.30699 0.101178 2.26592
1.31652 0.10084 2.26893
1.3243 0.103395 2.2659
1.33175 0.101404 2.26899
0.839028 0.114144 2.26629
0.845484 0.112586 2.26064
1.28485 0.114199 2.26603
0.82785 0.128435 2.2654
0.50532 0.137512 2.26685
0.513649 0.138598 2.26963
0.807992 0.135084 2.26495
0.813639 0.135479 2.26494
0.820734 0.131956 2.26517
0.489262 0.145935 2.26629
0.49529 0.144347 2.26641
0.5163 0.143808 2.26556
0.794 0.147168 2.26608
0.475615 0.157038 2.26557
0.482115 0.152971 2.26585
0.520646 0.15818 2.26564
0.77606 0.159981 2.26338
0.782851 0.156939 2.2664
-0.286109 0.169036 2.26933
-0.275553 0.16877 2.26942
-0.267504 0.169333 2.26943
-0.251869 0.167413 2.26966
-0.243882 0.16747 2.267
-0.233891 0.169007 2.26787
0.45674 0.166771 2.2677
0.465467 0.165372 2.26504
0.525312 0.162527 2.26538
0.755774 0.169113 2.26558
0.764147 0.166851 2.2648
0.775704 0.160961 2.26894
-0.62253 0.171111 2.26457
-0.352818 0.178435 2.2683
-0.345257 0.176954 2.26844
-0.316074 0.178495 2.26853
-0.30575 0.177459 2.26598
-0.295801 0.174136 2.26625
-0.285596 0.172087 2.26375
-0.275056 0.171819 2.26383
-0.263769 0.1706 2.26578
-0.254932 0.170548 2.26584
-0.230068 0.170949 2.26416
-0.224829 0.170311 2.26694
-0.216868 0.176563 2.26569
0.43795 0.177012 2.26424
0.443943 0.174919 2.26438
0.452275 0.170478 2.26376
0.528232 0.174288 2.26467
0.546872 0.178607 2.26169
0.556242 0.174741 2.26194
0.735333 0.179238 2.26213
0.744695 0.176627 2.26509
0.766697 0.17038 2.26832
-0.365421 0.188942 2.26576
-0.357608 0.184799 2.26429
-0.346995 0.181355 2.2628
-0.33597 0.184136 2.26536
-0.325702 0.183097 2.26549
-0.315322 0.182567 2.26291
-0.212823 0.180195 2.26908
-0.20409 0.186082 2.26607
-0.19571 0.189433 2.26859
0.405864 0.184815 2.26641
0.415852 0.186016 2.26454
0.4239 0.18256 2.26294
0.43142 0.182082 2.26391
0.534536 0.18327 2.26414
0.545905 0.182559 2.26698
0.556916 0.18333 2.26696
0.563468 0.183286 2.26329
0.727516 0.185725 2.26449
0.733015 0.18611 2.26725
-0.610151 0.192578 2.26064
-0.608769 0.196695 2.26563
-0.394699 0.197276 2.26504
-0.386137 0.193186 2.26447
-0.375661 0.193668 2.26451
-0.367928 0.193456 2.26191
-0.192858 0.191139 2.26313
-0.186273 0.194448 2.26653
-0.176989 0.198447 2.26634
0.396025 0.193673 2.26583
0.406802 0.195432 2.26028
0.568799 0.191698 2.26371
0.574834 0.197145 2.26248
0.585855 0.197582 2.26431
0.593496 0.196777 2.26255
0.603748 0.196657 2.2635
0.615577 0.194219 2.26368
0.626462 0.195232 2.26365
0.634527 0.196299 2.2636
0.642733 0.196874 2.26359
0.654483 0.198031 2.26447
0.66543 0.195699 2.26372
0.674016 0.195044 2.26378
0.68315 0.192668 2.26395
0.694188 0.19319 2.26395
0.702017 0.194994 2.26385
0.715224 0.197426 2.26374
-0.601651 0.20272 2.26266
-0.594903 0.207714 2.26499
-0.411571 0.205977 2.26351
-0.40397 0.205504 2.26358
-0.396721 0.203499 2.26111
-0.172932 0.203086 2.26251
-0.165424 0.207296 2.26584
-0.152942 0.209175 2.2658
-0.146046 0.207982 2.26769
0.385783 0.205517 2.26505
0.577705 0.200361 2.26595
0.649775 0.201386 2.26059
0.70558 0.201273 2.26348
-0.593202 0.212858 2.26987
-0.587337 0.215278 2.26713
-0.573719 0.218241 2.26961
-0.429295 0.217297 2.26529
-0.417121 0.214883 2.26291
-0.161517 0.210919 2.26209
-0.156334 0.210277 2.26216
-0.142982 0.212217 2.26478
-0.136434 0.21636 2.26367
-0.129204 0.218708 2.26445
0.346383 0.211803 2.26994
0.356771 0.215545 2.26704
0.362179 0.215924 2.26703
0.372768 0.218172 2.26422
-0.580314 0.221297 2.26677
-0.575313 0.221145 2.26422
-0.566155 0.22346 2.26584
-0.557867 0.228395 2.26901
-0.456931 0.228426 2.2644
-0.435143 0.224425 2.26479
-0.422343 0.224818 2.26745
-0.123684 0.221607 2.2643
-0.115586 0.224183 2.26418
-0.106084 0.222839 2.26521
-0.0945604 0.22465 2.26692
0.336366 0.224668 2.26638
0.344949 0.221752 2.2639
0.353109 0.22182 2.26392
-0.553579 0.231375 2.26539
-0.546778 0.231684 2.26627
-0.539585 0.238719 2.26841
-0.514288 0.239485 2.2685
-0.509168 0.239843 2.26851
-0.492417 0.236996 2.26364
-0.486712 0.239405 2.26609
-0.463154 0.233518 2.26662
-0.45206 0.234127 2.26751
-0.445426 0.233754 2.26671
-0.439236 0.238207 2.26646
-0.101985 0.23016 2.26124
-0.0938517 0.233744 2.26107
-0.0833192 0.234732 2.2637
-0.0672911 0.239623 2.26611
0.304876 0.237537 2.26811
0.316052 0.234551 2.26567
0.325996 0.234326 2.26483
0.330157 0.230263 2.26868
-0.534606 0.244092 2.26466
-0.522688 0.244926 2.26552
-0.51659 0.243008 2.26483
-0.505261 0.241792 2.26497
-0.497031 0.241363 2.26676
-0.48329 0.24266 2.26847
-0.474636 0.246782 2.26567
-0.468506 0.241685 2.26605
-0.0747829 0.244625 2.26312
-0.0666396 0.249717 2.26023
-0.0566597 0.242628 2.26336
-0.0468318 0.247084 2.264
-0.0354597 0.248383 2.26573
0.265967 0.248882 2.26721
0.27703 0.245637 2.26747
0.285356 0.243205 2.26766
0.293408 0.243266 2.26503
0.304376 0.241522 2.26251
-0.525778 0.251242 2.26509
-0.0324857 0.256128 2.26002
-0.0273339 0.254981 2.26274
-0.0116852 0.255574 2.26279
-0.00656372 0.252918 2.26298
0.235672 0.25882 2.26644
0.243898 0.25613 2.26401
0.254622 0.255374 2.26411
0.265228 0.255865 2.26147
0.275699 0.257603 2.2614
0.284205 0.253174 2.26171
-0.0217882 0.262906 2.26487
-0.0167064 0.260247 2.26507
-0.00110341 0.260334 2.26515
0.00677483 0.262896 2.26503
0.017289 0.267651 2.26478
0.0250918 0.268197 2.26479
0.0328586 0.266229 2.26496
0.0432901 0.267964 2.2649
0.0615252 0.267733 2.26502
0.1557 0.269301 2.26539
0.196161 0.267443 2.26396
0.208278 0.269966 2.26035
0.219011 0.267703 2.26579
0.226071 0.267527 2.26233
0.232674 0.26263 2.26355
0.052854 0.271481 2.26646
0.0667294 0.271112 2.26483
0.0736463 0.275616 2.26804
0.0857813 0.275795 2.26809
0.0953144 0.276379 2.26723
0.103055 0.279684 2.26965
0.116113 0.278086 2.26723
0.126549 0.277812 2.2647
0.136958 0.27854 2.2647
0.144788 0.278586 2.26474
0.150183 0.274944 2.265
0.162589 0.271458 2.26354
0.171055 0.276405 2.265
0.187041 0.272499 2.26272
0.192342 0.271866 2.26017
0.204482 0.27372 2.26359
0.215189 0.271455 2.26204
0.0770453 0.282888 2.26411
0.0822468 0.281242 2.26425
0.106459 0.282267 2.26604
0.113412 0.281414 2.2644
0.17603 0.280773 2.26474
