ply
format ascii 1.0
comment PCL generated
element vertex 196
property float x
property float y
property float z
element camera 1
property float view_px
property float view_py
property float view_pz
property float x_axisx
property float x_axisy
property float x_axisz
property float y_axisx
property float y_axisy
property float y_axisz
property float z_axisx
property float z_axisy
property float z_axisz
property float focal
property float scalex
property float scaley
property float centerx
property float centery
property int viewportx
property int viewporty
property float k1
property float k2
end_header
-0.020736072 0.33423167 -1.2144498
0.0038095233 0.34815538 -1.2057509
-0.31379551 -0.048541207 -1.0140743
-0.095506214 -0.1000441 -1.0332372
0.077055253 -0.064673126 -1.0381627
0.20144391 -0.065976024 -1.0042253
-0.25706264 0.021434579 -1.0129344
-0.15296499 0.10411242 -1.05885
0.069019273 0.10326585 -1.0909547
-0.087163605 0.3046034 -1.0704933
0.032178752 0.28985855 -1.0949967
-0.038640313 0.41128632 -1.0850142
-0.05716167 -0.21192488 -0.82646567
0.0093012182 -0.20528741 -0.81139344
-0.26662391 -0.041624628 -0.95765156
-0.11595207 -0.10905754 -0.89831012
0.084243543 -0.084592164 -0.91334856
0.20745735 -0.12258565 -0.93545783
-0.23740591 0.027450569 -0.95186585
-0.16726647 0.10643362 -0.88672745
0.093882456 0.097047456 -0.90471792
-0.071878761 0.29290643 -0.89838582
0.043467481 0.25436565 -0.91445869
-0.055488776 0.40926826 -0.96489441
-0.066905126 -0.25434628 -0.68555033
0.053451199 -0.24639001 -0.66793638
-0.1405607 -0.11209119 -0.70483345
0.12387299 -0.11771543 -0.70679909
0.21522947 -0.05079573 -0.62558228
-0.12294979 0.098356612 -0.69856852
0.13619728 0.10194051 -0.73502398
0.22668768 0.081411868 -0.63899624
-0.041708462 0.26302218 -0.69525868
0.078498289 0.26521441 -0.70163786
0.22463271 0.33042833 -0.63190347
0.17496946 0.51321083 -0.66298091
0.21142572 0.4236632 -0.66002381
0.17397107 0.6598807 -0.66336012
-0.21024977 -0.21795021 -0.42257032
-0.10600398 -0.29460302 -0.49335283
0.10638971 -0.28308561 -0.49503985
0.20517622 -0.20853087 -0.43797094
-0.22674313 -0.082769006 -0.44424701
-0.16028231 -0.1189955 -0.53268808
0.17926638 -0.16589795 -0.53184509
0.22931537 -0.091932021 -0.49063435
-0.2288079 0.053988837 -0.44224799
-0.13531138 0.1096059 -0.52669042
0.25993943 0.10007412 -0.5020563
-0.034889333 0.30331793 -0.50536609
0.12879416 0.36728099 -0.46901172
0.24754398 0.27828598 -0.50653934
-0.017588545 0.45160422 -0.47012997
0.10027676 0.49759614 -0.53333592
-0.045925237 0.77755904 -0.40417278
0.1148155 0.66491413 -0.51705569
-0.014227362 -0.4042027 -0.29153422
-0.21374261 -0.2266544 -0.30004147
-0.1228124 -0.33137548 -0.30618519
0.11507133 -0.31043074 -0.29932913
0.20619914 -0.21491967 -0.31762537
-0.24656238 -0.11016005 -0.30227628
0.19328509 -0.14702144 -0.28369656
0.21207191 -0.090482302 -0.31235963
-0.24519153 0.094725937 -0.29714942
-0.19122495 0.19652843 -0.39887211
0.17522648 0.11703696 -0.26726797
0.22997038 0.090180829 -0.33960152
-0.21700238 0.23550712 -0.29039955
-0.13956538 0.3314473 -0.27484927
0.098414719 0.29756984 -0.28961644
0.23357053 0.24946874 -0.36286467
-0.082377158 0.49572983 -0.29629797
0.01203564 0.41969305 -0.35400647
-0.075852551 0.70155227 -0.30809343
-0.010540592 -0.40216494 -0.062564418
0.028032297 -0.40173218 -0.059504747
-0.21250255 -0.22488365 -0.081028372
-0.1196719 -0.33472058 -0.10328368
0.12048011 -0.32947916 -0.10433993
0.22204418 -0.23789081 -0.068849266
-0.24283674 -0.10958326 -0.10293502
0.19518438 -0.18344928 -0.1632435
0.2412253 -0.097686 -0.093501434
-0.23125571 0.084319159 -0.098886773
-0.18268883 0.15649557 -0.12299897
0.18541336 0.16403311 -0.16117811
0.23786981 0.090893485 -0.087997451
-0.20964895 0.2120879 -0.19074844
-0.096680634 0.27143812 -0.1228698
0.13278861 0.26481646 -0.10806506
0.21016861 0.21293834 -0.03332819
0.02248247 -0.40022594 0.13486016
-0.22424513 -0.23584306 0.10801616
-0.11819132 -0.34711233 0.099397533
0.11882018 -0.35398433 0.099392444
0.24450333 -0.25573039 0.10705861
-0.28129226 -0.10923246 0.10292745
0.28511208 -0.10308561 0.10237519
-0.28733197 0.092123039 0.099415906
0.27857655 0.10279226 0.0991458
-0.22359587 0.22271469 0.12751104
-0.13059627 0.27965927 0.10493746
0.14472651 0.2932508 0.10531983
0.2232379 0.22821429 0.1073377
-0.062358409 0.42685667 0.19003868
-0.0062517724 -0.40046588 0.23336923
0.038141888 -0.40123734 0.2880511
-0.22657365 -0.23283564 0.29280502
-0.12110598 -0.3437328 0.2978408
0.12835 -0.36418161 0.2987566
0.24763724 -0.27374995 0.29927018
-0.28280562 -0.10983012 0.29764649
0.28191301 -0.10050301 0.29811957
-0.29783607 0.10031875 0.30413598
0.18682839 0.18863668 0.37545151
0.25548184 0.098624945 0.29649308
-0.2233932 0.22966412 0.2770412
-0.08806362 0.31606954 0.29985541
0.12064244 0.2826646 0.28957388
0.21316303 0.21955214 0.25116277
-0.029127803 0.42334095 0.25776339
0.010530908 0.43692553 0.27050427
0.15527079 0.77152932 0.37818736
0.20588493 0.78835541 0.37706909
-0.014450548 -0.40877399 0.54421198
0.044781622 -0.40772799 0.51227748
-0.2187756 -0.25039956 0.50452244
-0.12453025 -0.34924999 0.49918091
0.13220322 -0.36819565 0.5066269
0.24209289 -0.28252539 0.50178754
-0.24145831 -0.09927886 0.49966544
0.27826199 -0.098602735 0.50082403
-0.24147597 0.088353798 0.48502061
-0.1637786 0.14617881 0.56700021
0.17903063 0.17721006 0.43029118
0.24701519 0.095008641 0.50640166
-0.21782322 0.20998132 0.43776831
-0.059938911 0.2584464 0.45561877
0.13689263 0.30301934 0.53119338
0.21483241 0.26177409 0.5524317
0.14626412 0.50891811 0.56282496
0.20947525 0.44744086 0.58568788
0.14061721 0.70134687 0.49448743
0.20456551 0.78073865 0.42561328
-0.016966343 -0.41113156 0.70926845
0.032953348 -0.41256449 0.70011675
-0.21534587 -0.24256355 0.6547972
-0.12136737 -0.3182162 0.70601302
0.1172568 -0.34197009 0.71063733
0.23491566 -0.27636537 0.67451149
-0.23315522 -0.097003907 0.69777882
-0.1862939 -0.19404638 0.78469163
0.19109762 -0.10280418 0.78085542
0.24499391 -0.099512853 0.68528074
-0.22434862 0.055969588 0.72618687
-0.16456681 0.14253375 0.68230897
0.18125014 0.086957224 0.74899209
0.22544791 0.090092927 0.66670281
-0.059807707 0.2453029 0.70146102
0.12409177 0.32867581 0.66378927
0.21007399 0.24048956 0.63140088
0.11615948 0.4834992 0.66483432
0.12441819 0.62789309 0.62040311
-0.0096317315 -0.40406165 0.81349772
0.018736366 -0.4068346 0.81750846
-0.076556072 -0.28663516 0.85670173
0.06470827 -0.30215523 0.8662883
-0.21748646 -0.060564123 0.83912051
-0.15511234 -0.1138138 0.91155052
0.10273412 -0.10123301 0.85706496
-0.22739346 0.10114994 0.87933964
-0.12367325 0.11204904 0.91654199
0.057896096 0.093498133 0.88273245
-0.21165571 0.2420667 0.90551209
-0.13608782 0.30660897 0.89226848
0.066488914 0.30553696 0.91136003
-0.20015784 0.41746998 0.99425673
-0.13148662 0.45696121 0.93056852
0.11729097 0.5150578 0.93028831
0.21704605 0.58550388 0.91050369
-0.12918393 0.72840297 0.99380523
0.16927573 0.61535835 0.95476991
0.22291028 0.63033229 0.93317187
-0.13450006 0.83306265 0.99871755
-0.16225983 0.17879343 1.0027139
-0.16571273 0.33752075 1.0318438
-0.20307012 0.52024907 1.0666486
-0.16987078 0.50484353 1.0497102
0.10848101 0.55810606 1.0055659
-0.20723012 0.7681517 1.1146083
-0.15903194 0.71342504 1.0760235
0.17867291 0.63481277 1.004482
0.21601756 0.6493296 1.0044593
-0.20780432 0.8214218 1.1100304
-0.13877082 0.81975722 1.0586697
0 0 0 1 0 0 0 1 0 0 0 1 0 0 0 0 0 196 1 0 0
